ply
format ascii 1.0
element vertex 891
property float x
property float y
property float z
property float nx
property float ny
property float nz
property uchar red
property uchar green
property uchar blue
property uchar class
end_header
0.1524 1.9478 0.2562 -0.575 -0.763 0.295 193 111 50 0
0.1768 1.9311 0.2587 -0.587 -0.764 0.269 196 114 48 0
0.1822 1.9239 0.2580 -0.716 -0.680 0.158 192 111 48 0
0.1865 1.9194 0.2578 -0.671 -0.689 0.274 190 108 48 0
0.1899 1.9172 0.2582 -0.687 -0.683 0.250 184 102 45 0
0.1939 1.9133 0.2582 -0.694 -0.647 0.315 181 101 42 0
0.2681 1.8990 0.2792 0.078 -0.866 -0.494 241 143 68 0
0.2710 1.8979 0.2798 -0.048 -0.990 -0.133 242 144 70 0
0.2743 1.8955 0.2801 -0.618 -0.723 0.307 247 149 76 0
0.2777 1.8927 0.2803 -0.678 -0.699 0.229 250 152 79 0
0.2810 1.8901 0.2805 -0.630 -0.738 0.241 249 151 78 0
0.3696 1.8842 0.3096 0.733 -0.501 0.461 252 149 70 0
0.3709 1.8878 0.3113 0.733 -0.501 0.461 253 150 69 0
0.3854 1.8711 0.3103 -0.077 -0.893 0.444 241 139 57 0
0.3876 1.8719 0.3114 -0.123 -0.804 0.582 245 141 59 0
0.4410 1.8842 0.3347 -0.037 -0.698 0.715 254 146 62 0
0.4455 1.8851 0.3367 -0.027 -0.714 0.700 255 150 63 0
0.4476 1.8862 0.3378 -0.027 -0.714 0.700 255 151 64 0
0.4499 1.8865 0.3387 -0.096 -0.763 0.640 255 149 63 0
0.4567 1.8880 0.3416 -0.309 -0.649 0.695 254 144 56 0
0.4598 1.8847 0.3416 0.004 -0.619 0.785 255 146 61 0
0.4721 1.8927 0.3488 -0.053 -0.620 0.783 247 138 53 0
0.4741 1.8940 0.3500 -0.053 -0.620 0.783 248 139 54 0
0.6710 1.9509 0.4402 0.120 -0.985 -0.127 242 143 75 0
0.6734 1.9508 0.4410 0.164 -0.986 0.039 238 139 71 0
0.7189 1.9988 0.4746 0.269 -0.709 0.652 225 128 60 0
0.7204 2.0088 0.4788 0.276 -0.660 0.699 225 128 60 0
0.7226 2.0117 0.4806 0.276 -0.660 0.699 225 129 61 0
0.7248 2.0145 0.4824 0.276 -0.660 0.699 221 126 61 0
0.7270 2.0173 0.4842 0.276 -0.660 0.699 218 124 60 0
0.7294 2.0179 0.4853 0.379 -0.601 0.704 213 121 56 0
0.7312 2.0255 0.4887 0.370 -0.642 0.672 210 120 56 0
0.7335 2.0280 0.4904 0.241 -0.677 0.696 212 124 61 0
0.7358 2.0297 0.4919 0.374 -0.581 0.723 210 123 60 0
0.7496 2.0760 0.5137 0.410 -0.511 0.756 210 119 49 0
0.7516 2.0840 0.5173 0.526 -0.623 0.579 206 115 47 0
0.7540 2.0854 0.5187 0.351 -0.588 0.729 205 115 52 0
0.7562 2.0897 0.5210 0.359 -0.584 0.728 203 116 55 0
0.1508 1.9479 0.2528 -0.595 -0.756 0.274 190 109 47 0
0.1753 1.9311 0.2554 -0.540 -0.796 0.274 195 113 48 0
0.1790 1.9281 0.2556 -0.700 -0.659 0.276 194 112 49 0
0.1844 1.9211 0.2549 -0.720 -0.675 0.163 188 107 47 0
0.1880 1.9181 0.2551 -0.704 -0.669 0.238 185 103 46 0
0.1923 1.9136 0.2550 -0.688 -0.675 0.265 184 102 46 0
0.1967 1.9087 0.2548 -0.705 -0.667 0.243 184 103 44 0
0.2228 1.8922 0.2580 -0.051 -0.997 0.052 198 108 42 0
0.2625 1.8770 0.2664 -0.570 -0.805 -0.166 216 118 43 0
0.2632 1.8818 0.2684 -0.112 -0.832 0.543 222 124 49 0
0.2687 1.9003 0.2771 0.078 -0.866 -0.494 242 144 69 0
0.2764 1.8924 0.2769 -0.614 -0.721 0.321 247 149 76 0
0.2861 1.8852 0.2778 -0.506 -0.714 0.484 248 150 77 0
0.3846 1.8691 0.3066 -0.042 -0.840 0.541 241 139 55 0
0.3868 1.8696 0.3076 -0.042 -0.840 0.541 242 140 57 0
0.4495 1.8827 0.3345 -0.066 -0.788 0.612 255 151 64 0
0.4858 1.8885 0.3494 -0.127 -0.780 0.613 251 145 59 0
0.6655 1.9448 0.4333 0.833 -0.539 0.125 253 160 98 0
0.6720 1.9502 0.4375 0.250 -0.967 -0.056 242 144 79 0
0.6743 1.9508 0.4386 0.164 -0.986 0.039 238 140 73 0
0.6768 1.9504 0.4393 0.678 -0.642 -0.359 236 139 70 0
0.6834 1.9545 0.4432 0.074 -0.980 -0.187 236 138 70 0
0.7201 1.9961 0.4712 0.269 -0.709 0.652 226 129 61 0
0.7217 2.0055 0.4752 0.298 -0.668 0.682 224 127 59 0
0.7238 2.0084 0.4770 0.276 -0.660 0.699 223 126 59 0
0.7260 2.0112 0.4788 0.276 -0.660 0.699 221 126 61 0
0.7282 2.0143 0.4807 0.446 -0.590 0.673 219 125 61 0
0.7303 2.0182 0.4829 0.402 -0.635 0.660 217 125 60 0
0.7325 2.0213 0.4848 0.414 -0.650 0.637 212 122 58 0
0.7348 2.0239 0.4865 0.210 -0.684 0.699 207 119 56 0
0.7371 2.0257 0.4880 0.302 -0.584 0.753 208 120 58 0
0.7553 2.0807 0.5144 0.342 -0.577 0.742 209 116 48 0
0.7575 2.0854 0.5169 0.359 -0.584 0.728 207 116 49 0
0.7595 2.0942 0.5208 0.586 -0.618 0.524 199 114 50 0
0.0085 2.2037 0.2925 -0.406 -0.861 -0.304 177 110 58 0
0.1529 1.9452 0.2498 -0.615 -0.761 0.206 189 108 44 0
0.1822 1.9226 0.2519 -0.741 -0.661 0.122 192 111 49 0
0.1866 1.9179 0.2518 -0.720 -0.675 0.163 188 106 46 0
0.1909 1.9135 0.2517 -0.718 -0.669 0.191 189 107 48 0
0.1948 1.9098 0.2517 -0.704 -0.669 0.238 188 106 47 0
0.2633 1.8774 0.2642 -0.433 -0.859 -0.273 219 121 46 0
0.2663 1.8760 0.2647 -0.412 -0.749 -0.519 220 122 47 0
0.2711 1.8962 0.2737 -0.524 -0.836 0.165 245 147 72 0
0.3483 1.8896 0.2986 -0.553 -0.735 0.392 255 160 88 0
0.3608 1.8802 0.2996 -0.355 -0.935 -0.017 254 162 92 0
0.4968 1.8859 0.3496 -0.316 -0.809 0.496 247 143 58 0
0.5412 1.8987 0.3699 -0.446 -0.890 0.095 243 138 57 0
0.5537 1.8953 0.3731 -0.195 -0.647 -0.737 248 142 64 0
0.6683 1.9491 0.4331 0.841 -0.515 0.168 254 163 101 0
0.6707 1.9492 0.4340 0.193 -0.969 -0.156 253 159 97 0
0.6729 1.9502 0.4351 0.106 -0.993 -0.049 250 152 90 0
0.6755 1.9490 0.4356 -0.017 -0.999 -0.034 247 149 85 0
0.6777 1.9502 0.4368 0.097 -0.990 0.099 239 142 76 0
0.6800 1.9507 0.4378 0.061 -0.975 0.215 234 137 69 0
0.6846 1.9523 0.4400 0.043 -0.981 0.187 232 135 67 0
0.7229 2.0024 0.4717 0.293 -0.693 0.659 226 129 61 0
0.7251 2.0053 0.4735 0.298 -0.668 0.682 220 124 56 0
0.7273 2.0079 0.4752 0.276 -0.660 0.699 216 121 56 0
0.7294 2.0112 0.4772 0.446 -0.590 0.673 219 125 61 0
0.7315 2.0153 0.4794 0.446 -0.590 0.673 217 125 60 0
0.7336 2.0194 0.4816 0.446 -0.590 0.673 214 124 61 0
0.7358 2.0229 0.4836 0.477 -0.611 0.631 208 120 57 0
0.7384 2.0218 0.4842 0.374 -0.581 0.723 206 117 57 0
0.7405 2.0260 0.4864 0.374 -0.581 0.723 204 115 57 0
0.7583 2.0879 0.5152 0.321 -0.730 0.604 211 118 47 0
0.7606 2.0926 0.5177 0.586 -0.618 0.524 205 116 49 0
0.0052 2.2006 0.2870 -0.762 -0.607 0.227 169 106 56 0
0.1491 1.9448 0.2454 -0.533 -0.685 0.497 195 113 49 0
0.1513 1.9456 0.2465 -0.601 -0.774 0.200 195 114 49 0
0.1617 1.9386 0.2477 -0.484 -0.799 0.357 197 113 49 0
0.1649 1.9369 0.2482 -0.484 -0.799 0.357 196 113 49 0
0.1690 1.9330 0.2482 -0.626 -0.771 0.120 195 114 49 0
0.1733 1.9286 0.2481 -0.638 -0.651 0.412 191 112 48 0
0.1779 1.9234 0.2479 -0.642 -0.595 0.483 191 112 48 0
0.1800 1.9246 0.2490 -0.761 -0.637 0.122 189 110 46 0
0.1845 1.9195 0.2488 -0.718 -0.669 0.191 190 110 48 0
0.1932 1.9100 0.2485 -0.718 -0.669 0.191 190 109 49 0
0.2642 1.8778 0.2619 -0.365 -0.897 -0.250 218 120 47 0
0.2664 1.8783 0.2628 -0.300 -0.871 -0.389 223 125 51 0
0.2693 1.8770 0.2634 -0.142 -0.873 -0.467 223 125 51 0
0.3586 1.8827 0.2970 -0.589 -0.803 -0.086 254 166 97 0
0.3616 1.8807 0.2973 -0.299 -0.943 -0.147 253 161 89 0
0.3850 1.8740 0.3032 0.734 -0.652 0.190 246 142 58 0
0.4127 1.8681 0.3108 0.904 -0.202 0.377 254 152 75 0
0.4643 1.8780 0.3326 0.667 -0.547 -0.507 251 143 58 0
0.5149 1.8934 0.3561 -0.070 -0.605 0.793 244 138 56 0
0.6690 1.9512 0.4313 0.738 -0.631 -0.238 254 168 107 0
0.6765 1.9484 0.4330 -0.250 -0.933 -0.260 249 153 89 0
0.6812 1.9484 0.4346 -0.052 -0.982 -0.182 233 135 68 0
0.6833 1.9512 0.4364 0.084 -0.993 0.080 233 136 69 0
0.6857 1.9514 0.4373 0.084 -0.993 0.080 232 135 69 0
0.7241 1.9996 0.4683 0.285 -0.725 0.627 222 125 58 0
0.7263 2.0023 0.4700 0.299 -0.692 0.657 219 124 58 0
0.7285 2.0050 0.4718 0.298 -0.668 0.682 208 114 51 0
0.7306 2.0087 0.4738 0.477 -0.611 0.631 214 122 58 0
0.7327 2.0125 0.4760 0.477 -0.611 0.631 211 120 57 0
0.7348 2.0167 0.4782 0.495 -0.611 0.618 211 121 58 0
0.7370 2.0206 0.4804 0.495 -0.611 0.618 212 122 59 0
0.7391 2.0245 0.4826 0.499 -0.633 0.592 210 120 60 0
0.7416 2.0244 0.4834 0.437 -0.631 0.641 209 119 60 0
0.7639 2.0950 0.5168 0.586 -0.618 0.524 205 119 52 0
0.0074 2.2050 0.2861 -0.444 -0.869 -0.217 172 106 55 0
0.1480 1.9437 0.2418 -0.656 -0.653 0.377 194 113 50 0
0.1495 1.9462 0.2432 -0.570 -0.797 0.199 196 114 50 0
0.1532 1.9434 0.2435 -0.611 -0.778 0.146 196 115 50 0
0.1635 1.9367 0.2448 -0.351 -0.833 0.428 196 112 49 0
0.1664 1.9358 0.2455 -0.351 -0.833 0.428 194 112 48 0
0.1815 1.9171 0.2441 -0.669 -0.611 0.424 188 110 47 0
0.1853 1.9138 0.2442 -0.422 -0.703 0.572 188 110 47 0
0.2625 1.8784 0.2588 -0.120 -0.962 -0.245 219 121 48 0
0.2649 1.8785 0.2597 -0.301 -0.902 -0.310 223 125 52 0
0.2671 1.8790 0.2606 -0.300 -0.871 -0.389 225 127 54 0
0.2699 1.8780 0.2613 -0.142 -0.873 -0.467 227 129 56 0
0.2726 1.8772 0.2619 -0.142 -0.873 -0.467 229 131 58 0
0.2753 1.8764 0.2626 -0.142 -0.873 -0.467 232 134 61 0
0.2773 1.8776 0.2637 -0.012 -0.999 -0.039 237 139 66 0
0.2798 1.8773 0.2645 -0.105 -0.994 0.014 237 139 66 0
0.3628 1.8799 0.2948 -0.016 -0.994 0.108 251 159 87 0
0.3645 1.8821 0.2962 0.025 -0.978 0.206 254 160 83 0
0.3842 1.8719 0.2995 0.761 -0.571 0.308 245 141 56 0
0.3859 1.8743 0.3009 0.734 -0.652 0.190 246 142 57 0
0.4684 1.8844 0.3337 0.450 -0.811 -0.375 251 142 58 0
0.5134 1.8832 0.3492 -0.005 -0.491 0.871 253 144 62 0
0.5153 1.8850 0.3505 0.189 -0.572 0.798 250 143 61 0
0.5169 1.8886 0.3523 0.124 -0.618 0.777 248 143 60 0
0.5229 1.8937 0.3563 -0.247 -0.797 0.551 250 146 63 0
0.5271 1.8959 0.3586 0.134 -0.622 0.772 250 145 63 0
0.5287 1.8999 0.3605 0.304 -0.495 0.814 247 142 60 0
0.6774 1.9482 0.4305 -0.284 -0.879 -0.383 250 156 90 0
0.6822 1.9482 0.4322 0.047 -0.998 0.037 233 135 68 0
0.6844 1.9500 0.4336 0.116 -0.962 0.248 235 137 71 0
0.6866 1.9517 0.4350 0.239 -0.958 0.157 232 134 70 0
0.7148 2.0043 0.4638 -0.880 -0.403 -0.253 227 129 58 0
0.7252 1.9976 0.4651 0.414 -0.713 0.566 221 125 58 0
0.7274 1.9999 0.4667 0.426 -0.696 0.578 218 124 59 0
0.7296 2.0029 0.4686 0.466 -0.676 0.571 213 120 57 0
0.7318 2.0064 0.4706 0.509 -0.619 0.599 212 120 57 0
0.7339 2.0104 0.4728 0.495 -0.611 0.618 211 121 58 0
0.7360 2.0143 0.4749 0.495 -0.611 0.618 211 121 58 0
0.7380 2.0193 0.4775 0.440 -0.635 0.635 212 122 59 0
0.7402 2.0221 0.4792 0.495 -0.611 0.618 212 122 59 0
0.7424 2.0263 0.4815 0.405 -0.647 0.646 213 123 62 0
0.7673 2.0975 0.5159 0.586 -0.618 0.524 206 121 52 0
0.1375 1.9530 0.2386 -0.692 -0.656 0.303 193 113 52 0
0.1467 1.9432 0.2383 -0.692 -0.656 0.303 193 112 51 0
0.1838 1.9137 0.2409 -0.590 -0.654 0.475 188 110 49 0
0.2282 1.8947 0.2498 0.577 -0.709 0.406 199 106 39 0
0.2300 1.8965 0.2511 0.274 -0.958 -0.082 196 103 36 0
0.2488 1.8787 0.2514 -0.270 -0.831 0.487 207 111 42 0
0.2511 1.8791 0.2523 -0.236 -0.879 0.415 212 115 46 0
0.2625 1.8810 0.2570 -0.177 -0.984 0.008 226 128 53 0
0.2648 1.8813 0.2579 -0.283 -0.958 -0.044 227 129 56 0
0.2675 1.8805 0.2586 -0.310 -0.950 -0.038 228 130 57 0
0.2703 1.8796 0.2592 -0.310 -0.950 -0.038 227 129 56 0
0.2730 1.8787 0.2599 -0.310 -0.950 -0.038 231 133 61 0
0.2757 1.8780 0.2606 -0.283 -0.958 -0.044 232 134 63 0
0.2779 1.8786 0.2616 -0.251 -0.946 0.205 235 137 64 0
0.2807 1.8773 0.2621 -0.103 -0.995 -0.018 234 136 63 0
0.3604 1.8831 0.2924 -0.678 -0.678 -0.284 252 164 100 0
0.3819 1.8668 0.2941 0.733 -0.631 0.255 240 135 52 0
0.3836 1.8693 0.2956 0.733 -0.631 0.255 241 137 53 0
0.3851 1.8720 0.2971 0.780 -0.592 0.204 245 141 56 0
0.3868 1.8746 0.2986 0.703 -0.676 0.221 246 142 58 0
0.3885 1.8767 0.3000 0.528 -0.809 0.258 248 143 60 0
0.5166 1.8943 0.3516 -0.425 -0.777 -0.464 253 148 67 0
0.5192 1.8930 0.3520 -0.265 -0.839 -0.476 252 147 66 0
0.5214 1.8939 0.3531 -0.177 -0.954 -0.244 252 147 66 0
0.5240 1.8926 0.3536 -0.365 -0.917 -0.160 253 149 69 0
0.5266 1.8915 0.3541 -0.381 -0.919 -0.103 254 150 70 0
0.5292 1.8902 0.3546 0.098 -0.991 0.091 253 149 69 0
0.6756 1.9321 0.4213 0.694 -0.568 0.443 254 167 103 0
0.6808 1.9480 0.4288 -0.538 -0.665 -0.518 248 151 83 0
0.6826 1.9524 0.4310 0.082 -0.748 -0.658 237 140 72 0
0.6850 1.9523 0.4319 0.145 -0.740 -0.657 235 137 71 0
0.7263 1.9958 0.4620 0.414 -0.713 0.566 217 122 55 0
0.7286 1.9980 0.4636 0.426 -0.696 0.578 218 124 60 0
0.7307 2.0011 0.4655 0.466 -0.676 0.571 217 124 62 0
0.7329 2.0042 0.4674 0.509 -0.619 0.599 214 123 60 0
0.7350 2.0080 0.4695 0.509 -0.619 0.599 212 122 59 0
0.7371 2.0118 0.4716 0.509 -0.619 0.599 212 122 59 0
0.7392 2.0168 0.4741 0.440 -0.635 0.635 211 121 58 0
0.7414 2.0197 0.4759 0.495 -0.611 0.618 210 120 57 0
0.7435 2.0245 0.4784 0.519 -0.576 0.632 212 122 60 0
0.7456 2.0284 0.4805 0.513 -0.568 0.644 210 120 59 0
0.1365 1.9519 0.2350 -0.704 -0.679 0.208 189 110 50 0
0.1405 1.9482 0.2351 -0.681 -0.689 0.246 192 113 51 0
0.1450 1.9437 0.2351 -0.678 -0.690 0.251 193 113 52 0
0.1835 1.9109 0.2370 -0.581 -0.717 0.386 191 112 53 0
0.1871 1.9082 0.2373 -0.581 -0.717 0.386 187 108 50 0
0.1942 1.9026 0.2378 -0.502 -0.799 0.330 186 107 48 0
0.1974 1.9008 0.2383 -0.517 -0.818 0.254 187 107 47 0
0.2495 1.8795 0.2492 0.129 -0.925 0.358 208 112 42 0
0.2606 1.8822 0.2540 -0.209 -0.953 0.221 228 130 56 0
0.2633 1.8816 0.2548 -0.299 -0.934 0.196 229 131 56 0
0.2658 1.8812 0.2555 -0.314 -0.926 0.209 233 135 61 0
0.2685 1.8804 0.2562 -0.314 -0.926 0.209 234 136 63 0
0.2712 1.8797 0.2569 -0.314 -0.926 0.209 233 135 62 0
0.2739 1.8789 0.2576 -0.314 -0.926 0.209 231 133 61 0
0.2766 1.8781 0.2582 -0.314 -0.926 0.209 231 133 61 0
0.2791 1.8777 0.2590 -0.251 -0.946 0.205 231 133 61 0
0.2844 1.8766 0.2604 0.506 -0.860 0.069 228 131 58 0
0.2869 1.8761 0.2612 0.239 -0.932 0.273 225 127 53 0
0.3095 1.8591 0.2631 -0.641 -0.639 0.425 224 124 46 0
0.3828 1.8669 0.2918 0.733 -0.631 0.255 240 136 52 0
0.3845 1.8694 0.2933 0.733 -0.631 0.255 243 139 53 0
0.3862 1.8716 0.2947 0.719 -0.640 0.271 243 139 54 0
0.3876 1.8747 0.2963 0.623 -0.717 0.311 245 142 57 0
0.5181 1.8918 0.3485 0.361 -0.355 -0.862 252 150 68 0
0.5222 1.8943 0.3509 -0.177 -0.954 -0.244 252 150 69 0
0.5276 1.8913 0.3517 -0.381 -0.919 -0.103 254 151 73 0
0.5302 1.8903 0.3522 0.030 -0.998 0.051 251 149 70 0
0.6834 1.9538 0.4291 0.132 -0.818 -0.560 241 144 76 0
0.6858 1.9541 0.4300 0.240 -0.786 -0.569 236 139 72 0
0.6881 1.9545 0.4310 0.375 -0.863 -0.338 234 137 72 0
0.7038 1.9638 0.4399 -0.416 -0.755 0.506 229 132 64 0
0.7274 1.9939 0.4590 0.350 -0.728 0.589 214 119 53 0
0.7297 1.9961 0.4605 0.426 -0.696 0.578 215 121 58 0
0.7320 1.9978 0.4619 0.465 -0.653 0.598 215 122 60 0
0.7341 2.0011 0.4639 0.465 -0.653 0.598 214 123 60 0
0.7362 2.0054 0.4661 0.412 -0.664 0.624 213 123 60 0
0.7384 2.0086 0.4680 0.412 -0.664 0.624 212 122 59 0
0.7406 2.0117 0.4699 0.412 -0.664 0.624 212 122 59 0
0.7425 2.0173 0.4726 0.495 -0.611 0.618 213 123 59 0
0.7446 2.0218 0.4750 0.519 -0.576 0.632 212 122 59 0
0.7468 2.0263 0.4773 0.519 -0.576 0.632 207 117 57 0
0.7489 2.0302 0.4795 0.513 -0.568 0.644 208 119 61 0
0.7530 2.0420 0.4851 0.601 -0.519 0.608 199 115 61 0
0.1294 1.9589 0.2321 -0.715 -0.660 0.230 182 105 52 0
0.1342 1.9537 0.2320 -0.715 -0.660 0.230 186 107 51 0
0.1386 1.9493 0.2319 -0.699 -0.680 0.220 190 112 51 0
0.1430 1.9447 0.2319 -0.703 -0.686 0.187 194 114 51 0
0.1788 1.9126 0.2332 -0.604 -0.732 0.317 188 110 51 0
0.1825 1.9097 0.2334 -0.604 -0.732 0.317 187 111 53 0
0.1864 1.9061 0.2335 -0.581 -0.771 0.261 187 111 53 0
0.1962 1.9002 0.2349 -0.502 -0.799 0.330 184 106 50 0
0.2310 1.8861 0.2422 -0.202 -0.894 0.400 198 106 39 0
0.2321 1.8897 0.2439 0.087 -0.634 0.768 201 108 41 0
0.2505 1.8794 0.2468 0.160 -0.902 0.402 209 113 43 0
0.2619 1.8813 0.2515 -0.336 -0.907 0.252 230 133 61 0
0.2646 1.8807 0.2522 -0.417 -0.878 0.234 232 134 61 0
0.2670 1.8805 0.2530 -0.397 -0.849 0.349 234 136 62 0
0.2698 1.8795 0.2536 -0.397 -0.849 0.349 235 137 63 0
0.2726 1.8784 0.2542 -0.397 -0.849 0.349 233 135 62 0
0.2752 1.8779 0.2549 -0.314 -0.926 0.209 232 134 61 0
0.2778 1.8773 0.2557 -0.251 -0.946 0.205 229 131 58 0
0.2831 1.8760 0.2571 0.228 -0.934 0.276 224 127 56 0
0.3086 1.8577 0.2596 -0.641 -0.639 0.425 222 125 48 0
0.3873 1.8712 0.2922 0.639 -0.712 0.292 238 136 49 0
0.4780 1.9052 0.3364 0.701 -0.709 0.081 247 142 59 0
0.6782 1.9451 0.4214 0.557 -0.786 -0.269 252 157 89 0
0.6842 1.9550 0.4270 0.264 -0.723 -0.638 243 146 79 0
0.6865 1.9557 0.4281 0.277 -0.745 -0.607 240 142 75 0
0.6889 1.9557 0.4289 0.467 -0.771 -0.434 236 139 72 0
0.6912 1.9565 0.4300 0.467 -0.771 -0.434 233 135 69 0
0.6984 1.9562 0.4325 0.434 -0.887 0.157 226 128 63 0
0.7285 1.9925 0.4560 0.346 -0.718 0.604 214 118 52 0
0.7307 1.9951 0.4577 0.446 -0.623 0.642 213 118 55 0
0.7328 1.9987 0.4597 0.446 -0.623 0.642 212 119 57 0
0.7351 2.0010 0.4613 0.431 -0.686 0.587 214 122 59 0
0.7373 2.0040 0.4632 0.431 -0.686 0.587 214 124 61 0
0.7395 2.0069 0.4650 0.431 -0.686 0.587 211 123 60 0
0.7416 2.0101 0.4669 0.318 -0.714 0.624 212 121 59 0
0.7437 2.0149 0.4693 0.343 -0.664 0.664 213 122 60 0
0.7458 2.0191 0.4716 0.417 -0.604 0.680 212 122 60 0
0.7480 2.0231 0.4738 0.454 -0.590 0.668 201 112 57 0
0.1324 1.9544 0.2287 -0.674 -0.647 0.356 180 103 49 0
0.1364 1.9510 0.2289 -0.674 -0.682 0.284 188 109 51 0
0.1403 1.9477 0.2291 -0.597 -0.744 0.300 192 113 51 0
0.1453 1.9417 0.2288 -0.674 -0.712 0.199 194 114 51 0
0.1495 1.9378 0.2289 -0.674 -0.712 0.199 193 113 53 0
0.1589 1.9333 0.2306 -0.626 -0.726 0.285 188 108 47 0
0.1737 1.9154 0.2296 -0.625 -0.754 0.204 186 108 48 0
0.1884 1.9037 0.2306 -0.562 -0.787 0.252 178 104 51 0
0.2617 1.8846 0.2498 -0.631 -0.776 0.007 230 134 62 0
0.2651 1.8818 0.2500 -0.631 -0.776 0.007 232 135 63 0
0.2820 1.8752 0.2537 0.225 -0.901 0.372 224 128 53 0
0.2842 1.8756 0.2546 0.228 -0.934 0.276 222 126 51 0
0.3112 1.8527 0.2561 -0.641 -0.639 0.425 220 122 47 0
0.5390 1.8906 0.3501 0.362 -0.797 -0.483 250 144 66 0
0.6813 1.9468 0.4203 -0.371 -0.918 -0.144 249 153 85 0
0.6872 1.9574 0.4262 0.453 -0.673 -0.585 243 145 80 0
0.6896 1.9575 0.4271 0.512 -0.720 -0.469 242 144 79 0
0.6919 1.9584 0.4282 0.469 -0.724 -0.505 238 140 75 0
0.6971 1.9548 0.4287 0.353 -0.932 0.079 233 136 69 0
0.6993 1.9563 0.4301 0.139 -0.981 -0.138 231 133 66 0
0.7014 1.9589 0.4317 -0.430 -0.895 0.114 230 133 65 0
0.7296 1.9908 0.4530 0.386 -0.726 0.569 212 118 51 0
0.7318 1.9931 0.4546 0.450 -0.669 0.591 208 114 51 0
0.7340 1.9959 0.4563 0.461 -0.697 0.548 204 112 51 0
0.7362 1.9987 0.4581 0.461 -0.697 0.548 207 117 57 0
0.7384 2.0016 0.4599 0.461 -0.697 0.548 209 120 58 0
0.7406 2.0044 0.4617 0.461 -0.697 0.548 210 123 62 0
0.7428 2.0077 0.4636 0.318 -0.714 0.624 212 123 61 0
0.7449 2.0121 0.4659 0.343 -0.664 0.664 211 120 59 0
0.7470 2.0159 0.4680 0.417 -0.604 0.680 209 119 59 0
0.7491 2.0201 0.4702 0.454 -0.590 0.668 199 111 57 0
0.1311 1.9419 0.2210 0.268 -0.658 0.704 175 105 50 0
0.1316 1.9525 0.2249 -0.642 -0.657 0.395 177 102 47 0
0.1349 1.9508 0.2255 -0.665 -0.686 0.295 183 105 49 0
0.1391 1.9469 0.2256 -0.674 -0.682 0.284 191 111 51 0
0.1616 1.9293 0.2273 -0.712 -0.666 0.222 188 109 48 0
0.1754 1.9138 0.2268 -0.616 -0.762 0.203 184 108 51 0
0.2428 1.8667 0.2341 -0.379 -0.534 0.756 199 106 39 0
0.2456 1.8655 0.2347 -0.379 -0.534 0.756 196 103 36 0
0.2437 1.8769 0.2380 -0.319 -0.947 -0.015 202 109 42 0
0.2469 1.8750 0.2385 0.366 -0.823 0.433 201 108 41 0
0.4379 1.8565 0.2996 0.121 -0.939 0.323 250 147 72 0
0.5412 1.8961 0.3501 0.649 -0.546 -0.530 249 143 65 0
0.6968 1.9445 0.4223 0.878 -0.310 -0.365 238 141 73 0
0.6986 1.9495 0.4246 0.874 -0.386 -0.296 236 139 71 0
0.7070 1.9602 0.4314 -0.122 -0.960 0.253 229 132 64 0
0.7329 1.9913 0.4515 0.557 -0.675 0.483 205 112 49 0
0.7351 1.9945 0.4534 0.478 -0.705 0.525 195 104 46 0
0.7373 1.9973 0.4552 0.478 -0.705 0.525 196 107 50 0
0.7395 2.0001 0.4569 0.478 -0.705 0.525 196 108 53 0
0.7416 2.0034 0.4589 0.450 -0.718 0.531 197 110 57 0
0.7439 2.0059 0.4605 0.396 -0.738 0.546 205 117 63 0
0.7461 2.0083 0.4622 0.472 -0.717 0.513 207 117 60 0
0.7482 2.0129 0.4645 0.454 -0.590 0.668 206 118 59 0
0.7503 2.0170 0.4667 0.454 -0.590 0.668 198 111 58 0
0.1295 1.9540 0.2219 -0.702 -0.614 0.361 176 104 47 0
0.1345 1.9482 0.2216 -0.665 -0.655 0.359 181 106 48 0
0.2398 1.8770 0.2340 0.025 -0.667 0.744 201 108 41 0
0.2423 1.8770 0.2348 -0.287 -0.875 0.389 201 107 42 0
0.2478 1.8686 0.2338 0.759 -0.574 0.308 201 107 41 0
0.4346 1.8547 0.2952 -0.275 -0.934 0.230 252 151 74 0
0.4371 1.8542 0.2959 0.589 -0.808 0.002 250 149 72 0
0.4388 1.8564 0.2973 0.397 -0.858 0.325 252 150 75 0
0.4408 1.8580 0.2985 0.457 -0.781 0.426 254 152 77 0
0.4427 1.8594 0.2997 0.493 -0.785 0.375 254 151 76 0
0.5402 1.8939 0.3463 0.208 -0.702 -0.682 250 146 69 0
0.5417 1.8982 0.3483 0.669 -0.537 -0.514 249 145 68 0
0.5490 1.9211 0.3589 0.157 -0.876 0.455 242 136 60 0
0.6968 1.9523 0.4223 0.709 -0.607 -0.359 241 144 76 0
0.6990 1.9541 0.4237 0.709 -0.607 -0.359 237 140 72 0
0.7276 1.9807 0.4431 -0.420 -0.688 0.592 215 119 51 0
0.7296 1.9846 0.4452 -0.378 -0.697 0.610 212 117 49 0
0.7318 1.9871 0.4468 0.557 -0.675 0.483 210 115 48 0
0.7340 1.9902 0.4487 0.557 -0.675 0.483 204 110 48 0
0.7362 1.9930 0.4505 0.478 -0.705 0.525 196 106 48 0
0.7383 1.9958 0.4522 0.478 -0.705 0.525 188 102 47 0
0.7405 1.9993 0.4542 0.433 -0.708 0.558 189 104 52 0
0.7427 2.0020 0.4559 0.433 -0.708 0.558 186 102 52 0
0.7450 2.0042 0.4575 0.396 -0.738 0.546 192 106 55 0
0.7472 2.0069 0.4592 0.472 -0.717 0.513 197 110 57 0
0.7494 2.0097 0.4610 0.456 -0.708 0.539 196 108 56 0
0.7515 2.0145 0.4634 0.481 -0.623 0.617 192 106 55 0
0.2421 1.8737 0.2309 0.025 -0.667 0.744 203 110 43 0
0.2439 1.8752 0.2321 -0.287 -0.875 0.389 201 108 42 0
0.2488 1.8686 0.2315 0.759 -0.574 0.308 205 112 45 0
0.2494 1.8733 0.2333 0.676 -0.664 0.321 203 110 43 0
0.3045 1.8531 0.2458 -0.689 -0.615 0.383 219 123 46 0
0.3076 1.8510 0.2462 -0.715 -0.626 0.310 219 123 46 0
0.4400 1.8555 0.2947 0.457 -0.781 0.426 254 153 78 0
0.4418 1.8574 0.2960 0.549 -0.744 0.380 254 153 78 0
0.4434 1.8602 0.2976 0.646 -0.664 0.378 253 152 77 0
0.5501 1.9203 0.3563 0.411 -0.855 0.318 243 137 61 0
0.5524 1.9209 0.3573 0.157 -0.876 0.455 237 134 57 0
0.6995 1.9587 0.4227 0.528 -0.839 -0.133 239 142 74 0
0.7329 1.9859 0.4440 0.557 -0.675 0.483 210 115 47 0
0.7350 1.9890 0.4458 0.557 -0.675 0.483 205 111 46 0
0.7372 1.9915 0.4475 0.478 -0.705 0.525 200 108 48 0
0.7394 1.9943 0.4493 0.478 -0.705 0.525 188 102 47 0
0.7416 1.9971 0.4510 0.478 -0.705 0.525 198 118 65 0
0.7438 2.0003 0.4529 0.450 -0.718 0.531 198 119 70 0
0.7460 2.0026 0.4545 0.396 -0.738 0.546 186 104 55 0
0.7482 2.0055 0.4563 0.472 -0.717 0.513 191 107 56 0
0.7504 2.0090 0.4583 0.409 -0.684 0.604 190 106 56 0
0.7526 2.0121 0.4601 0.340 -0.702 0.626 191 107 57 0
0.1782 1.9080 0.2175 -0.538 -0.837 0.099 177 104 53 0
0.2261 1.8800 0.2247 0.051 -0.923 0.382 194 103 39 0
0.2368 1.8774 0.2276 -0.111 -0.888 0.446 204 111 44 0
0.2399 1.8757 0.2281 0.186 -0.446 0.876 203 110 43 0
0.2443 1.8704 0.2278 -0.019 -0.655 0.756 203 110 43 0
0.2478 1.8674 0.2280 0.552 -0.462 0.694 201 108 40 0
0.2488 1.8711 0.2297 0.587 -0.609 0.533 200 107 40 0
0.2504 1.8734 0.2310 0.631 -0.644 0.432 193 100 33 0
0.2866 1.8728 0.2437 0.385 -0.857 0.342 215 119 43 0
0.2886 1.8741 0.2448 0.385 -0.857 0.342 216 120 44 0
0.2983 1.8598 0.2433 -0.777 -0.626 0.066 221 125 48 0
0.3022 1.8557 0.2432 -0.705 -0.630 0.325 220 124 47 0
0.3077 1.8533 0.2444 -0.738 -0.673 0.048 219 123 46 0
0.4429 1.8569 0.2936 0.574 -0.705 0.417 253 153 77 0
0.4445 1.8598 0.2951 0.646 -0.664 0.378 254 154 78 0
0.4374 1.9238 0.3148 0.743 -0.439 -0.505 254 151 72 0
0.7362 1.9868 0.4427 0.622 -0.657 0.425 211 115 48 0
0.7427 1.9956 0.4481 0.478 -0.705 0.525 190 106 52 0
0.7449 1.9984 0.4498 0.478 -0.705 0.525 201 120 71 0
0.7471 2.0009 0.4515 0.396 -0.738 0.546 185 102 54 0
0.7493 2.0041 0.4533 0.472 -0.717 0.513 190 109 60 0
0.7515 2.0068 0.4551 0.409 -0.684 0.604 183 103 56 0
0.7537 2.0097 0.4569 0.340 -0.702 0.626 178 96 48 0
0.7560 2.0127 0.4587 0.409 -0.684 0.604 192 110 59 0
0.1731 1.9169 0.2159 -0.766 -0.606 0.213 177 105 53 0
0.1797 1.9067 0.2148 -0.538 -0.837 0.099 176 102 53 0
0.2091 1.8887 0.2190 -0.434 -0.769 0.469 180 100 44 0
0.2304 1.8777 0.2227 -0.021 -0.977 0.213 201 109 43 0
0.2383 1.8759 0.2249 -0.175 -0.867 0.467 203 110 43 0
0.2441 1.8733 0.2261 0.215 -0.425 0.879 203 110 43 0
0.2496 1.8652 0.2252 0.552 -0.462 0.694 202 109 40 0
0.2515 1.8728 0.2285 0.631 -0.644 0.432 199 105 39 0
0.3048 1.8507 0.2398 -0.670 -0.738 0.077 220 124 47 0
0.3093 1.8514 0.2416 -0.732 -0.681 -0.021 218 122 45 0
0.3215 1.8503 0.2456 -0.519 -0.840 0.158 208 114 42 0
0.4398 1.9085 0.3077 0.920 -0.351 -0.175 254 152 74 0
0.4388 1.9314 0.3152 0.160 -0.573 -0.804 255 152 74 0
0.7392 1.9904 0.4422 0.450 -0.745 0.493 209 113 46 0
0.7415 1.9914 0.4434 0.478 -0.705 0.525 205 112 50 0
0.7437 1.9942 0.4451 0.478 -0.705 0.525 195 105 48 0
0.7459 1.9968 0.4468 0.396 -0.738 0.546 191 106 52 0
0.7482 1.9992 0.4484 0.396 -0.738 0.546 184 101 49 0
0.7503 2.0027 0.4504 0.472 -0.717 0.513 183 103 53 0
0.7526 2.0050 0.4520 0.411 -0.686 0.601 183 102 54 0
0.7548 2.0079 0.4538 0.411 -0.686 0.601 183 100 52 0
0.7571 2.0105 0.4555 0.425 -0.690 0.586 188 103 52 0
0.1515 1.9354 0.2118 0.772 -0.509 -0.381 187 108 51 0
0.1709 1.9187 0.2130 -0.773 -0.611 0.170 177 105 51 0
0.1780 1.9073 0.2116 -0.557 -0.829 0.048 172 100 49 0
0.1814 1.9050 0.2120 -0.557 -0.829 0.048 171 98 48 0
0.1846 1.9033 0.2125 -0.512 -0.859 -0.002 174 100 47 0
0.2183 1.8800 0.2165 -0.573 -0.629 0.525 189 104 43 0
0.2391 1.8763 0.2226 -0.052 -0.973 0.224 206 113 46 0
0.2469 1.8621 0.2205 0.257 -0.416 0.872 205 112 45 0
0.2473 1.8675 0.2225 0.215 -0.425 0.879 205 112 45 0
0.2512 1.8633 0.2224 0.535 -0.467 0.704 203 110 41 0
0.2529 1.8717 0.2259 0.514 -0.666 0.541 207 114 47 0
0.3061 1.8498 0.2372 -0.460 -0.863 -0.209 218 122 46 0
0.4391 1.9338 0.3134 0.301 -0.601 -0.740 254 152 75 0
0.4739 1.8519 0.2975 -0.902 -0.393 -0.179 252 147 66 0
0.7077 1.9526 0.4152 -0.704 -0.684 -0.191 215 121 59 0
0.7104 1.9489 0.4149 -0.793 -0.515 -0.324 223 127 64 0
0.7403 1.9891 0.4393 0.450 -0.745 0.493 214 118 49 0
0.7426 1.9900 0.4405 0.425 -0.708 0.563 211 116 51 0
0.7447 1.9938 0.4425 0.471 -0.739 0.482 209 116 54 0
0.7469 1.9963 0.4442 0.471 -0.739 0.482 203 113 53 0
0.7492 1.9987 0.4458 0.471 -0.739 0.482 194 108 51 0
0.7514 2.0013 0.4475 0.471 -0.739 0.482 191 106 50 0
0.7536 2.0039 0.4492 0.478 -0.705 0.525 194 108 52 0
0.7559 2.0061 0.4507 0.615 -0.645 0.454 197 109 53 0
0.7581 2.0090 0.4525 0.486 -0.691 0.535 199 110 53 0
0.1496 1.9363 0.2087 0.560 -0.771 -0.304 184 105 48 0
0.1513 1.9383 0.2100 0.675 -0.614 -0.409 185 108 51 0
0.1756 1.9097 0.2088 -0.670 -0.737 0.087 175 102 51 0
0.1794 1.9063 0.2090 -0.647 -0.761 0.050 167 94 44 0
0.1832 1.9031 0.2092 -0.596 -0.794 0.123 175 100 48 0
0.1867 1.9006 0.2096 -0.596 -0.794 0.123 182 107 50 0
0.1902 1.8980 0.2099 -0.596 -0.794 0.123 183 107 50 0
0.2083 1.8893 0.2134 -0.316 -0.818 0.481 184 103 46 0
0.2258 1.8757 0.2150 -0.044 -0.928 0.370 194 105 42 0
0.2508 1.8608 0.2187 0.257 -0.416 0.872 209 114 48 0
0.2513 1.8658 0.2206 0.569 -0.579 0.584 208 113 45 0
0.2558 1.8729 0.2247 0.134 -0.837 0.531 218 123 55 0
0.3070 1.8499 0.2349 -0.460 -0.863 -0.209 219 123 47 0
0.7086 1.9523 0.4127 -0.704 -0.684 -0.191 228 131 67 0
0.7113 1.9490 0.4125 -0.793 -0.515 -0.324 234 136 73 0
0.7458 1.9913 0.4393 0.453 -0.704 0.547 212 117 50 0
0.7480 1.9943 0.4410 0.440 -0.726 0.528 207 115 48 0
0.7503 1.9968 0.4427 0.440 -0.726 0.528 204 115 49 0
0.7525 1.9994 0.4444 0.440 -0.726 0.528 203 114 52 0
0.7547 2.0020 0.4461 0.440 -0.726 0.528 204 115 54 0
0.7569 2.0051 0.4479 0.615 -0.645 0.454 201 114 52 0
0.7592 2.0076 0.4496 0.523 -0.683 0.509 198 113 50 0
0.1501 1.9376 0.2065 0.578 -0.787 -0.216 181 104 47 0
0.1521 1.9389 0.2076 0.631 -0.769 -0.101 182 106 50 0
0.1774 1.9078 0.2060 -0.670 -0.737 0.087 166 94 41 0
0.1810 1.9048 0.2063 -0.647 -0.761 0.050 173 99 47 0
0.1847 1.9018 0.2065 -0.601 -0.763 0.237 179 103 50 0
0.1883 1.8991 0.2069 -0.601 -0.763 0.237 177 102 45 0
0.1918 1.8964 0.2072 -0.601 -0.763 0.237 185 108 52 0
0.1954 1.8937 0.2075 -0.502 -0.802 0.325 186 107 50 0
0.1983 1.8925 0.2082 -0.459 -0.797 0.394 181 103 45 0
0.2481 1.8703 0.2183 -0.375 -0.756 0.537 210 115 49 0
0.2513 1.8684 0.2188 -0.024 -0.767 0.641 211 116 49 0
0.2566 1.8736 0.2224 -0.196 -0.885 0.423 217 122 54 0
0.3079 1.8500 0.2326 -0.460 -0.863 -0.209 219 123 47 0
0.7122 1.9498 0.4103 -0.726 -0.557 -0.404 233 134 67 0
0.7513 1.9951 0.4397 0.345 -0.758 0.553 205 115 45 0
0.7535 1.9981 0.4415 0.478 -0.705 0.525 207 119 51 0
0.7558 2.0000 0.4430 0.486 -0.691 0.535 206 117 51 0
0.7580 2.0030 0.4448 0.486 -0.691 0.535 203 115 50 0
0.7602 2.0059 0.4465 0.334 -0.739 0.585 198 112 49 0
0.1619 1.9236 0.2031 -0.758 -0.631 0.163 179 106 50 0
0.1938 1.8939 0.2043 -0.601 -0.763 0.237 187 110 54 0
0.1973 1.8913 0.2047 -0.470 -0.835 0.285 186 110 51 0
0.2036 1.8879 0.2057 0.829 -0.554 0.079 182 103 44 0
0.2288 1.8668 0.2076 0.553 -0.702 0.449 191 102 42 0
0.2491 1.8768 0.2182 -0.620 -0.766 0.170 211 116 49 0
0.2537 1.8709 0.2178 -0.032 -0.889 0.456 214 119 53 0
0.2793 1.8664 0.2254 -0.298 -0.948 0.116 204 112 46 0
0.7130 1.9503 0.4081 -0.726 -0.557 -0.404 233 134 65 0
0.7392 1.9774 0.4266 0.165 -0.802 0.574 221 125 57 0
0.7545 1.9978 0.4389 0.429 -0.766 0.479 208 115 48 0
0.7568 2.0001 0.4405 0.429 -0.766 0.479 208 116 50 0
0.7590 2.0023 0.4421 0.429 -0.766 0.479 205 115 51 0
0.7613 2.0046 0.4436 0.429 -0.766 0.479 199 110 48 0
0.7635 2.0072 0.4453 0.455 -0.707 0.541 200 113 55 0
0.7657 2.0106 0.4473 0.529 -0.682 0.504 197 112 54 0
0.1849 1.9002 0.2005 -0.646 -0.746 0.160 177 104 52 0
0.2034 1.8907 0.2039 0.861 -0.438 -0.258 184 105 46 0
0.2133 1.8841 0.2052 -0.477 -0.870 0.124 185 104 43 0
0.2347 1.8727 0.2089 0.051 -0.986 0.157 189 99 35 0
0.2431 1.8760 0.2131 0.064 -0.995 0.079 207 113 47 0
0.2443 1.8793 0.2146 -0.649 -0.712 0.267 209 115 48 0
0.2482 1.8753 0.2146 -0.603 -0.775 0.189 209 115 49 0
0.2516 1.8726 0.2149 -0.487 -0.873 -0.030 212 118 50 0
0.2552 1.8694 0.2151 0.210 -0.946 0.247 214 119 53 0
0.2574 1.8699 0.2161 0.002 -0.953 0.304 215 121 54 0
0.2650 1.8688 0.2184 -0.215 -0.894 0.393 215 122 54 0
0.3105 1.8477 0.2275 -0.511 -0.812 0.283 210 115 41 0
0.7555 1.9965 0.4360 0.416 -0.774 0.478 206 113 46 0
0.7578 1.9987 0.4376 0.416 -0.774 0.478 207 115 49 0
0.7601 2.0004 0.4390 0.489 -0.697 0.524 206 116 52 0
0.7623 2.0034 0.4408 0.523 -0.683 0.509 204 114 51 0
0.7645 2.0065 0.4426 0.575 -0.658 0.486 197 109 49 0
0.7667 2.0098 0.4445 0.575 -0.658 0.486 194 111 53 0
0.7689 2.0132 0.4465 0.575 -0.658 0.486 197 115 54 0
0.1867 1.8980 0.1977 -0.616 -0.745 0.253 173 100 49 0
0.2148 1.8828 0.2026 -0.431 -0.881 0.196 184 102 42 0
0.2178 1.8814 0.2031 -0.419 -0.898 0.135 187 105 44 0
0.2318 1.8639 0.2023 0.698 -0.494 0.519 191 104 44 0
0.2328 1.8676 0.2038 0.553 -0.702 0.449 190 102 40 0
0.2358 1.8723 0.2065 0.051 -0.986 0.157 190 101 38 0
0.2381 1.8726 0.2074 0.051 -0.986 0.157 198 108 44 0
0.2404 1.8729 0.2083 0.051 -0.986 0.157 202 111 45 0
0.2427 1.8731 0.2092 0.051 -0.986 0.157 205 113 46 0
0.2455 1.8722 0.2099 -0.230 -0.961 0.156 207 114 47 0
0.2484 1.8709 0.2105 -0.405 -0.892 -0.199 210 117 50 0
0.2513 1.8694 0.2111 -0.405 -0.892 -0.199 211 118 51 0
0.2539 1.8689 0.2118 -0.323 -0.918 -0.230 211 118 49 0
0.2567 1.8680 0.2125 0.759 -0.634 -0.151 213 120 53 0
0.2588 1.8687 0.2135 0.170 -0.963 0.210 213 120 52 0
0.2613 1.8684 0.2143 -0.267 -0.878 0.397 215 122 53 0
0.2638 1.8684 0.2151 -0.138 -0.884 0.446 214 121 54 0
0.2662 1.8682 0.2159 -0.274 -0.878 0.392 214 121 54 0
0.3096 1.8464 0.2240 -0.497 -0.826 0.267 211 117 45 0
0.3590 1.8388 0.2390 -0.008 -1.000 0.008 233 138 73 0
0.7392 1.9718 0.4191 0.152 -0.790 0.594 214 119 55 0
0.7436 1.9758 0.4220 0.204 -0.743 0.637 217 123 59 0
0.7501 1.9856 0.4276 0.698 -0.641 0.319 210 117 50 0
0.7588 1.9977 0.4348 0.240 -0.776 0.584 206 113 47 0
0.7656 2.0051 0.4397 0.523 -0.683 0.509 195 108 49 0
0.7678 2.0083 0.4416 0.544 -0.652 0.529 191 108 53 0
0.7700 2.0120 0.4436 0.575 -0.658 0.486 188 108 49 0
0.7722 2.0153 0.4455 0.575 -0.658 0.486 196 114 54 0
0.1699 1.9114 0.1935 -0.636 -0.760 0.131 175 101 47 0
0.1888 1.8953 0.1948 -0.616 -0.745 0.253 176 102 50 0
0.2126 1.8846 0.1997 -0.549 -0.827 0.124 186 106 43 0
0.2197 1.8791 0.2003 -0.324 -0.929 0.177 188 107 45 0
0.2337 1.8678 0.2015 0.554 -0.757 0.346 189 103 40 0
0.2350 1.8706 0.2029 0.516 -0.846 0.135 189 101 36 0
0.2369 1.8721 0.2041 0.440 -0.873 0.212 190 102 36 0
0.2392 1.8723 0.2050 0.051 -0.986 0.157 198 108 43 0
0.2425 1.8701 0.2054 -0.289 -0.955 0.073 202 111 44 0
0.2441 1.8721 0.2067 0.013 -0.987 0.159 207 114 47 0
0.2467 1.8715 0.2074 -0.230 -0.961 0.156 209 116 48 0
0.2493 1.8711 0.2082 -0.371 -0.916 -0.152 213 120 52 0
0.2522 1.8698 0.2088 -0.371 -0.916 -0.152 211 118 52 0
0.2548 1.8692 0.2095 -0.323 -0.918 -0.230 211 118 51 0
0.2573 1.8690 0.2103 0.727 -0.671 -0.142 213 119 54 0
0.2600 1.8681 0.2110 0.150 -0.980 0.132 210 117 51 0
0.3032 1.8405 0.2171 0.753 -0.566 -0.336 206 111 43 0
0.3048 1.8424 0.2183 0.665 -0.745 0.055 206 112 43 0
0.3524 1.8404 0.2346 -0.466 -0.881 -0.085 233 139 75 0
0.7403 1.9696 0.4160 0.249 -0.758 0.604 215 119 54 0
0.7425 1.9715 0.4174 0.285 -0.704 0.650 213 118 53 0
0.7467 1.9792 0.4215 0.313 -0.637 0.704 214 120 56 0
0.7488 1.9828 0.4234 0.434 -0.600 0.672 215 122 57 0
0.7509 1.9866 0.4255 0.471 -0.598 0.649 213 121 57 0
0.7622 1.9976 0.4331 0.289 -0.666 0.688 205 112 47 0
0.7644 2.0009 0.4350 0.342 -0.644 0.685 203 111 48 0
0.7666 2.0033 0.4366 0.496 -0.678 0.543 193 107 46 0
0.7688 2.0068 0.4386 0.544 -0.652 0.529 184 102 47 0
0.7711 2.0099 0.4404 0.564 -0.600 0.567 182 101 47 0
0.7732 2.0139 0.4426 0.564 -0.600 0.567 193 110 53 0
0.7755 2.0174 0.4445 0.577 -0.620 0.532 201 115 54 0
0.1308 1.9474 0.1888 -0.663 -0.726 0.180 177 102 45 0
0.1717 1.9094 0.1907 -0.636 -0.760 0.131 180 105 50 0
0.1749 1.9078 0.1912 -0.609 -0.786 0.109 180 105 50 0
0.2241 1.8764 0.1983 -0.325 -0.930 0.173 189 106 42 0
0.2269 1.8755 0.1990 -0.289 -0.952 0.097 188 104 41 0
0.2359 1.8708 0.2006 0.516 -0.846 0.135 190 103 37 0
0.2379 1.8720 0.2017 0.440 -0.873 0.212 193 105 37 0
0.2402 1.8721 0.2026 0.005 -0.975 0.223 201 111 43 0
0.2450 1.8723 0.2044 0.032 -0.964 0.264 209 117 50 0
0.2478 1.8713 0.2050 -0.163 -0.946 0.280 212 119 50 0
0.2501 1.8714 0.2059 -0.442 -0.896 -0.049 210 117 50 0
0.2531 1.8699 0.2064 -0.442 -0.896 -0.049 213 119 54 0
0.2557 1.8693 0.2072 -0.480 -0.851 0.213 215 122 55 0
0.3056 1.8429 0.2161 0.665 -0.745 0.055 210 113 45 0
0.3072 1.8450 0.2174 -0.272 -0.875 0.401 214 117 49 0
0.3604 1.8401 0.2347 -0.201 -0.976 0.082 228 135 68 0
0.3629 1.8396 0.2354 -0.201 -0.976 0.082 226 131 65 0
0.7299 1.9622 0.4070 -0.893 -0.437 0.105 217 119 56 0
0.7414 1.9677 0.4130 0.337 -0.720 0.607 214 118 53 0
0.7436 1.9701 0.4145 0.337 -0.720 0.607 212 118 52 0
0.7455 1.9752 0.4169 0.271 -0.697 0.664 211 118 53 0
0.7498 1.9820 0.4207 0.341 -0.620 0.706 212 120 57 0
0.7519 1.9854 0.4226 0.341 -0.620 0.706 213 121 58 0
0.7544 1.9851 0.4234 0.197 -0.689 0.698 213 121 56 0
0.7655 1.9988 0.4319 0.655 -0.586 0.477 205 112 48 0
0.7699 2.0052 0.4356 0.544 -0.652 0.529 191 107 50 0
0.7721 2.0080 0.4373 0.564 -0.600 0.567 185 102 47 0
0.7743 2.0120 0.4395 0.564 -0.600 0.567 188 106 49 0
0.7765 2.0163 0.4417 0.496 -0.614 0.614 199 113 54 0
0.8090 2.1093 0.4843 0.576 -0.442 0.688 193 112 45 0
-0.0057 2.1902 0.2179 -0.701 -0.632 0.331 153 98 58 0
0.1332 1.9441 0.1857 -0.152 -0.804 0.575 176 101 45 0
0.1518 1.9238 0.1856 -0.603 -0.764 -0.229 173 101 47 0
0.1698 1.9104 0.1875 0.108 -0.924 0.367 177 102 47 0
0.1773 1.9044 0.1882 -0.649 -0.746 0.153 180 105 50 0
0.2003 1.8898 0.1916 -0.352 -0.902 -0.251 183 105 48 0
0.2195 1.8784 0.1946 -0.285 -0.957 0.054 192 109 44 0
0.2278 1.8755 0.1966 -0.222 -0.945 0.242 188 103 39 0
0.2332 1.8740 0.1980 -0.317 -0.937 0.147 191 105 41 0
0.2368 1.8710 0.1983 0.516 -0.846 0.135 194 106 40 0
0.2387 1.8722 0.1994 0.685 -0.720 0.113 198 109 42 0
0.2461 1.8719 0.2019 -0.031 -0.978 0.208 211 118 49 0
0.2479 1.8736 0.2031 -0.478 -0.845 0.241 212 119 51 0
0.2507 1.8725 0.2037 -0.569 -0.817 0.092 211 118 51 0
0.2542 1.8695 0.2040 -0.428 -0.902 -0.054 212 118 54 0
0.2724 1.8589 0.2070 -0.512 -0.695 0.504 203 115 49 0
0.3061 1.8441 0.2141 -0.242 -0.901 0.360 210 115 47 0
0.3615 1.8396 0.2323 -0.201 -0.976 0.082 225 132 65 0
0.3640 1.8392 0.2330 -0.201 -0.976 0.082 222 127 60 0
0.3912 1.8417 0.2435 0.812 -0.566 -0.141 227 130 54 0
0.7305 1.9661 0.4058 -0.920 -0.334 0.203 216 118 53 0
0.7404 1.9623 0.4080 0.630 -0.772 0.083 212 117 50 0
0.7426 1.9643 0.4095 0.630 -0.772 0.083 212 118 50 0
0.7447 1.9677 0.4114 0.441 -0.815 0.377 210 116 50 0
0.7465 1.9742 0.4142 0.184 -0.726 0.662 211 118 54 0
0.7488 1.9761 0.4156 0.184 -0.726 0.662 210 118 55 0
0.7510 1.9779 0.4170 0.184 -0.726 0.662 211 118 56 0
0.7533 1.9798 0.4184 0.065 -0.725 0.685 212 120 57 0
0.7555 1.9819 0.4200 0.197 -0.689 0.698 214 122 57 0
0.7576 1.9867 0.4223 0.215 -0.644 0.734 212 120 55 0
0.7687 2.0007 0.4309 0.641 -0.628 0.443 202 111 48 0
0.7709 2.0042 0.4328 0.524 -0.674 0.521 198 110 49 0
0.7731 2.0070 0.4346 0.556 -0.632 0.539 195 109 51 0
0.7753 2.0106 0.4365 0.558 -0.641 0.528 190 106 49 0
0.7776 2.0140 0.4385 0.564 -0.600 0.567 195 112 55 0
0.8124 2.1135 0.4839 0.431 -0.444 0.785 196 113 47 0
0.8145 2.1241 0.4882 0.598 -0.413 0.687 195 112 46 0
0.1336 1.9396 0.1815 -0.365 -0.928 -0.076 173 100 45 0
0.1285 1.9576 0.1856 0.755 -0.404 -0.517 173 100 45 0
0.1492 1.9266 0.1827 -0.609 -0.737 -0.295 174 102 49 0
0.1531 1.9233 0.1830 -0.609 -0.737 -0.295 174 103 50 0
0.1684 1.9104 0.1842 0.090 -0.953 0.288 179 104 49 0
0.1706 1.9109 0.1852 0.090 -0.953 0.288 178 103 48 0
0.2031 1.8854 0.1883 -0.315 -0.910 -0.268 182 104 48 0
0.2055 1.8854 0.1892 -0.568 -0.782 0.259 184 106 48 0
0.2110 1.8839 0.1907 -0.086 -0.646 0.758 187 106 46 0
0.2141 1.8821 0.1912 -0.276 -0.739 0.614 190 108 45 0
0.2190 1.8759 0.1909 -0.134 -0.894 0.427 192 108 44 0
0.2212 1.8763 0.1918 -0.053 -0.972 0.227 195 111 46 0
0.2374 1.8720 0.1961 -0.371 -0.861 0.347 195 108 40 0
0.2521 1.8712 0.2011 -0.569 -0.817 0.092 211 118 52 0
0.3310 1.8359 0.2175 -0.396 -0.879 -0.266 197 106 43 0
0.3364 1.8266 0.2164 -0.768 -0.577 -0.279 191 101 41 0
0.3625 1.8395 0.2300 -0.346 -0.922 0.175 225 131 64 0
0.3977 1.8384 0.2422 0.561 -0.307 -0.769 233 135 62 0
0.7413 1.9627 0.4057 0.580 -0.815 0.009 211 116 49 0
0.7435 1.9647 0.4072 0.630 -0.772 0.083 210 117 49 0
0.7457 1.9670 0.4087 0.441 -0.815 0.377 203 111 45 0
0.7479 1.9689 0.4101 0.441 -0.815 0.377 203 112 50 0
0.7501 1.9708 0.4116 0.211 -0.869 0.447 205 114 53 0
0.7522 1.9752 0.4138 0.184 -0.726 0.662 209 117 54 0
0.7544 1.9771 0.4152 0.184 -0.726 0.662 211 118 56 0
0.7567 1.9788 0.4166 0.197 -0.689 0.698 213 121 57 0
0.7588 1.9830 0.4187 0.215 -0.644 0.734 213 121 56 0
0.7608 1.9889 0.4213 0.387 -0.773 0.504 212 119 53 0
0.7630 1.9910 0.4228 0.394 -0.807 0.441 209 117 50 0
0.7674 1.9974 0.4265 0.694 -0.593 0.410 205 111 47 0
0.7697 2.0002 0.4282 0.576 -0.685 0.445 203 110 47 0
0.7719 2.0032 0.4300 0.576 -0.685 0.445 201 111 48 0
0.7742 2.0056 0.4316 0.558 -0.641 0.528 201 113 52 0
0.7764 2.0091 0.4336 0.558 -0.641 0.528 195 109 50 0
0.7786 2.0128 0.4356 0.469 -0.666 0.580 194 112 56 0
0.7808 2.0160 0.4374 0.469 -0.666 0.580 189 107 55 0
0.8092 2.0909 0.4724 0.563 -0.441 0.699 198 120 58 0
0.8157 2.1185 0.4838 0.598 -0.413 0.687 194 114 47 0
0.8179 2.1285 0.4879 0.598 -0.413 0.687 192 113 46 0
0.1501 1.9267 0.1803 -0.645 -0.753 -0.128 173 103 51 0
0.1540 1.9234 0.1806 -0.716 -0.690 -0.103 174 103 52 0
0.1684 1.9128 0.1822 -0.209 -0.943 0.259 178 103 48 0
0.1710 1.9124 0.1831 -0.209 -0.943 0.259 179 104 49 0
0.1741 1.9110 0.1837 0.052 -0.902 0.428 181 106 49 0
0.1860 1.8878 0.1803 0.878 -0.398 0.264 181 106 49 0
0.1879 1.8891 0.1814 0.710 -0.677 0.193 180 106 48 0
0.2090 1.8852 0.1876 -0.514 -0.815 0.266 189 109 47 0
0.2129 1.8815 0.1878 -0.383 -0.880 0.281 192 110 49 0
0.2156 1.8808 0.1885 -0.344 -0.877 0.336 193 109 48 0
0.2195 1.8769 0.1887 0.034 -0.967 0.251 193 109 45 0
0.2223 1.8760 0.1894 0.103 -0.993 0.060 196 111 45 0
0.2542 1.8682 0.1982 -0.178 -0.984 0.021 208 116 50 0
0.2793 1.8518 0.2017 -0.601 -0.714 0.360 201 113 49 0
0.2844 1.8442 0.2010 -0.209 -0.515 -0.831 200 111 47 0
0.3058 1.8438 0.2085 -0.116 -0.910 0.397 203 111 44 0
0.3329 1.8330 0.2146 -0.778 -0.568 -0.269 194 104 42 0
0.3372 1.8271 0.2142 -0.772 -0.567 -0.288 191 101 42 0
0.3976 1.8419 0.2406 0.494 -0.309 -0.813 233 135 63 0
0.5847 1.8490 0.3097 0.901 -0.426 -0.074 245 144 71 0
0.7444 1.9642 0.4046 0.500 -0.793 0.347 210 117 49 0
0.7467 1.9663 0.4061 0.441 -0.815 0.377 202 111 45 0
0.7489 1.9682 0.4075 0.441 -0.815 0.377 199 108 47 0
0.7512 1.9696 0.4088 0.211 -0.869 0.447 200 107 50 0
0.7534 1.9720 0.4103 0.189 -0.749 0.635 200 107 46 0
0.7556 1.9738 0.4117 0.189 -0.749 0.635 207 114 53 0
0.7579 1.9759 0.4132 0.257 -0.721 0.643 210 118 55 0
0.7601 1.9780 0.4147 0.257 -0.721 0.643 213 121 56 0
0.7618 1.9878 0.4185 0.613 -0.725 0.314 211 119 53 0
0.7640 1.9904 0.4202 0.613 -0.725 0.314 208 116 49 0
0.7663 1.9928 0.4218 0.694 -0.593 0.410 207 115 48 0
0.7684 1.9967 0.4238 0.694 -0.593 0.410 204 111 45 0
0.7707 1.9994 0.4255 0.564 -0.678 0.471 202 109 45 0
0.7729 2.0025 0.4273 0.564 -0.678 0.471 201 110 47 0
0.7752 2.0049 0.4289 0.458 -0.671 0.583 203 114 51 0
0.7774 2.0080 0.4307 0.458 -0.671 0.583 200 114 52 0
0.7819 2.0140 0.4343 0.397 -0.668 0.629 183 101 49 0
0.7841 2.0170 0.4361 0.397 -0.668 0.629 183 101 52 0
0.8103 2.0897 0.4694 0.590 -0.404 0.699 196 118 56 0
0.8125 2.0964 0.4724 0.579 -0.425 0.696 194 114 50 0
0.8168 2.1169 0.4806 0.584 -0.395 0.709 189 109 43 0
0.8190 2.1278 0.4850 0.696 -0.362 0.620 191 111 45 0
0.1330 1.9399 0.1757 -0.690 -0.667 -0.280 168 97 45 0
0.1388 1.9381 0.1772 -0.701 -0.703 0.118 169 98 46 0
0.1443 1.9311 0.1769 -0.533 -0.832 0.154 170 99 47 0
0.1476 1.9293 0.1774 -0.616 -0.784 -0.080 173 102 50 0
0.1514 1.9260 0.1778 -0.645 -0.753 -0.128 172 102 51 0
0.1718 1.9130 0.1807 -0.256 -0.938 0.232 181 106 50 0
0.1891 1.8886 0.1789 0.861 -0.494 -0.123 182 107 50 0
0.1905 1.8913 0.1803 0.865 -0.493 0.093 181 106 49 0
0.2239 1.8743 0.1867 0.637 -0.700 -0.322 198 110 44 0
0.2259 1.8756 0.1878 0.285 -0.904 -0.319 197 108 41 0
0.2304 1.8763 0.1897 0.099 -0.936 -0.338 200 109 42 0
0.2334 1.8749 0.1902 -0.013 -0.979 -0.205 201 112 45 0
0.2361 1.8742 0.1910 -0.147 -0.987 -0.059 204 113 46 0
0.2393 1.8720 0.1914 -0.235 -0.964 0.125 205 114 45 0
0.2836 1.8490 0.1997 0.181 -0.977 -0.114 201 112 48 0
0.2856 1.8501 0.2007 0.299 -0.930 -0.213 200 110 48 0
0.3424 1.8212 0.2115 -0.739 -0.546 -0.394 190 100 42 0
0.5578 1.8744 0.3058 0.195 -0.562 -0.804 253 156 90 0
0.5855 1.8495 0.3075 0.849 -0.503 -0.160 245 143 69 0
0.7476 1.9656 0.4034 0.441 -0.815 0.377 209 115 47 0
0.7499 1.9675 0.4048 0.441 -0.815 0.377 197 104 40 0
0.7522 1.9684 0.4060 0.211 -0.869 0.447 201 107 48 0
0.7545 1.9696 0.4072 0.211 -0.869 0.447 211 118 57 0
0.7568 1.9700 0.4081 -0.036 -0.943 0.332 205 112 51 0
0.7590 1.9734 0.4100 0.257 -0.721 0.643 208 116 53 0
0.7605 1.9849 0.4143 0.613 -0.725 0.314 210 118 53 0
0.7628 1.9875 0.4160 0.613 -0.725 0.314 209 117 50 0
0.7650 1.9901 0.4176 0.613 -0.725 0.314 210 118 51 0
0.7673 1.9920 0.4191 0.654 -0.639 0.405 207 115 48 0
0.7695 1.9953 0.4209 0.633 -0.670 0.387 203 110 44 0
0.7717 1.9984 0.4228 0.633 -0.670 0.387 204 110 45 0
0.7739 2.0016 0.4246 0.628 -0.670 0.397 203 111 47 0
0.7762 2.0038 0.4261 0.602 -0.745 0.287 203 113 49 0
0.7784 2.0062 0.4277 0.602 -0.745 0.287 203 114 52 0
0.7807 2.0094 0.4296 0.439 -0.689 0.577 199 111 51 0
0.8115 2.0838 0.4649 0.590 -0.404 0.699 196 118 53 0
0.8137 2.0910 0.4681 0.579 -0.425 0.696 199 121 57 0
0.1339 1.9401 0.1733 -0.716 -0.649 -0.258 166 96 44 0
0.1460 1.9295 0.1741 -0.533 -0.832 0.154 171 100 49 0
0.1492 1.9277 0.1747 -0.707 -0.703 0.074 173 103 52 0
0.1708 1.9117 0.1772 0.130 -0.990 -0.058 178 103 47 0
0.1726 1.9134 0.1784 -0.058 -0.992 0.115 180 105 48 0
0.1897 1.8895 0.1767 0.827 -0.545 -0.140 185 110 53 0
0.1910 1.8923 0.1781 0.796 -0.543 0.268 182 107 50 0
0.1970 1.8897 0.1794 -0.552 -0.832 0.062 179 102 45 0
0.2129 1.8803 0.1820 0.089 -0.980 -0.178 189 109 45 0
0.2317 1.8755 0.1871 0.029 -0.977 -0.212 202 110 43 0
0.2342 1.8754 0.1880 0.029 -0.977 -0.212 204 114 46 0
0.2366 1.8753 0.1888 0.029 -0.977 -0.212 205 113 45 0
0.2392 1.8749 0.1896 -0.005 -0.991 -0.135 205 114 44 0
0.2425 1.8725 0.1900 -0.419 -0.905 0.078 208 116 48 0
0.3164 1.8388 0.2054 -0.133 -0.990 0.041 200 108 43 0
0.5859 1.8525 0.3060 0.868 -0.468 -0.166 245 144 69 0
0.5873 1.8573 0.3081 0.918 -0.392 0.058 243 143 68 0
0.5892 1.8594 0.3095 0.950 -0.288 0.117 239 141 69 0
0.5905 1.8649 0.3117 0.939 -0.318 0.130 225 127 60 0
0.6793 1.8865 0.3505 -0.387 -0.849 0.361 236 139 70 0
0.7134 1.9120 0.3710 0.751 -0.593 0.289 221 124 56 0
0.7153 1.9161 0.3730 0.580 -0.721 0.380 222 125 57 0
0.7509 1.9661 0.4020 0.451 -0.766 0.457 213 119 52 0
0.7531 1.9680 0.4034 0.309 -0.838 0.450 206 112 49 0
0.7554 1.9696 0.4047 0.258 -0.859 0.442 203 110 46 0
0.7578 1.9690 0.4054 -0.036 -0.943 0.332 200 107 46 0
0.7602 1.9688 0.4062 0.229 -0.892 -0.391 204 112 50 0
0.7659 1.9897 0.4151 0.596 -0.730 0.334 209 117 50 0
0.7682 1.9927 0.4168 0.623 -0.741 -0.252 208 116 49 0
0.7705 1.9939 0.4180 0.768 -0.613 0.183 204 112 45 0
0.7726 1.9986 0.4203 0.608 -0.707 0.361 204 111 44 0
0.7749 2.0009 0.4219 0.628 -0.670 0.397 204 111 46 0
0.7771 2.0041 0.4237 0.628 -0.670 0.397 202 110 45 0
0.7793 2.0081 0.4258 0.437 -0.829 0.350 202 110 48 0
0.7816 2.0099 0.4272 0.437 -0.829 0.350 201 110 48 0
0.7839 2.0121 0.4288 0.504 -0.789 0.350 194 106 49 0
0.1473 1.9287 0.1715 -0.701 -0.703 0.118 169 101 47 0
0.1717 1.9120 0.1748 0.105 -0.985 -0.136 178 103 48 0
0.1741 1.9121 0.1757 0.105 -0.985 -0.136 181 105 48 0
0.1913 1.8881 0.1741 -0.175 -0.811 0.558 184 107 51 0
0.1939 1.8877 0.1749 -0.309 -0.772 0.556 182 105 49 0
0.1965 1.8872 0.1756 -0.309 -0.772 0.556 182 105 49 0
0.2115 1.8802 0.1787 0.074 -0.961 0.267 189 109 49 0
0.2168 1.8790 0.1802 0.167 -0.810 -0.563 187 103 42 0
0.2188 1.8802 0.1813 0.005 -0.963 -0.271 189 104 42 0
0.2325 1.8761 0.1849 0.142 -0.967 -0.210 203 110 43 0
0.2349 1.8759 0.1857 0.029 -0.977 -0.212 206 112 48 0
0.2375 1.8756 0.1865 -0.013 -0.979 -0.205 207 113 48 0
0.2401 1.8751 0.1873 -0.215 -0.964 -0.154 207 113 48 0
0.2880 1.8487 0.1958 -0.224 -0.943 0.245 195 105 44 0
0.5864 1.8543 0.3042 0.868 -0.468 -0.166 245 143 69 0
0.5879 1.8586 0.3061 0.918 -0.392 0.058 244 142 68 0
0.5898 1.8608 0.3075 0.963 -0.259 0.078 245 144 72 0
0.5912 1.8659 0.3097 0.963 -0.250 0.102 242 140 70 0
0.6520 1.8740 0.3340 0.398 -0.607 0.687 242 148 78 0
0.7143 1.9118 0.3685 0.807 -0.549 0.218 221 124 57 0
0.7166 1.9129 0.3697 0.450 -0.844 0.293 221 123 57 0
0.7183 1.9184 0.3721 0.560 -0.642 0.524 221 123 60 0
0.7203 1.9217 0.3739 0.432 -0.614 0.661 222 124 59 0
0.7519 1.9653 0.3993 0.177 -0.909 0.377 218 121 51 0
0.7541 1.9675 0.4008 0.253 -0.954 0.163 212 116 48 0
0.7564 1.9687 0.4020 0.153 -0.985 -0.075 207 112 45 0
0.7588 1.9686 0.4029 0.120 -0.975 -0.188 203 109 46 0
0.7611 1.9699 0.4041 0.237 -0.885 -0.401 203 110 46 0
0.7714 1.9944 0.4157 0.757 -0.619 0.206 205 113 48 0
0.7736 1.9972 0.4174 0.660 -0.651 0.376 202 110 45 0
0.7758 2.0009 0.4194 0.608 -0.707 0.361 200 108 43 0
0.7780 2.0039 0.4212 0.703 -0.674 0.229 202 110 45 0
0.7803 2.0065 0.4228 0.411 -0.802 0.432 198 106 42 0
0.7826 2.0085 0.4243 0.411 -0.802 0.432 197 107 45 0
0.7849 2.0105 0.4258 0.411 -0.802 0.432 194 106 48 0
0.7872 2.0132 0.4275 0.492 -0.755 0.433 183 98 43 0
0.1423 1.9251 0.1658 0.358 -0.902 0.240 161 95 45 0
0.1451 1.9304 0.1685 -0.701 -0.703 0.118 169 101 50 0
0.1725 1.9124 0.1725 0.105 -0.985 -0.136 177 102 47 0
0.1753 1.9118 0.1733 -0.026 -0.967 -0.253 181 104 48 0
0.1961 1.8847 0.1719 -0.309 -0.772 0.556 182 105 49 0
0.2167 1.8818 0.1784 0.296 -0.931 0.216 187 104 43 0
0.2331 1.8768 0.1826 -0.116 -0.977 -0.179 204 111 44 0
0.2361 1.8754 0.1832 -0.375 -0.915 -0.148 206 112 48 0
0.2456 1.8694 0.1847 -0.570 -0.818 -0.077 209 115 51 0
0.2893 1.8478 0.1933 -0.224 -0.943 0.245 192 102 40 0
0.2920 1.8469 0.1940 -0.443 -0.893 -0.076 193 103 41 0
0.2948 1.8454 0.1945 -0.443 -0.893 -0.076 192 100 39 0
0.3147 1.8354 0.1984 -0.031 -0.960 0.280 206 113 47 0
0.3169 1.8360 0.1994 -0.253 -0.894 0.370 206 113 47 0
0.3194 1.8356 0.2001 -0.253 -0.894 0.370 204 112 47 0
0.3261 1.8365 0.2028 -0.250 -0.968 -0.003 191 100 38 0
0.3624 1.8323 0.2144 -0.365 -0.930 0.026 221 129 66 0
0.5044 1.8351 0.2661 -0.805 -0.564 -0.183 225 129 55 0
0.5870 1.8564 0.3024 0.658 -0.738 0.149 243 141 67 0
0.5886 1.8599 0.3042 0.918 -0.392 0.058 243 141 67 0
0.7175 1.9127 0.3673 0.418 -0.896 0.150 219 121 56 0
